# .PCD v0.7 - Point Cloud Data file format
VERSION 0.7
FIELDS x y z
SIZE 4 4 4
TYPE F F F
COUNT 1 1 1
WIDTH 1676
HEIGHT 1
VIEWPOINT 0 0 0 1 0 0 0
POINTS 1676
DATA ascii
1141.199 51.736931 71.403419
1141.5 50.224491 71.216103
1141.182 48.47311 71.772774
1142.1021 47.199631 70.841454
1142.402 45.687199 70.654137
1142.703 44.17477 70.466812
1143.004 42.662338 70.279488
1143.3051 41.14991 70.092171
1142.985 39.409649 70.650223
1143.286 37.899071 70.463127
1143.5861 36.3885 70.276031
1143.886 34.87793 70.088943
1144.187 33.367352 69.901848
1144.4871 31.85677 69.71476
1144.788 30.346199 69.527657
1145.088 28.835621 69.340576
1145.389 27.32505 69.153481
1145.689 25.81447 68.966377
1145.99 24.30389 68.779297
1146.29 22.79332 68.592201
1146.5909 21.28274 68.405113
1146.891 19.772169 68.218018
1147.191 18.261589 68.03093
1147.4919 16.75102 67.843826
1146.54 14.8442 69.154747
1146.839 13.33734 68.968117
1145.885 11.44166 70.280434
1146.184 9.9385071 70.094254
1146.483 8.4353542 69.908081
1146.782 6.9322009 69.721909
1145.823 5.0550671 71.036552
1146.1219 3.5556271 70.850838
1146.42 2.056185 70.665123
1146.718 0.55674392 70.479408
1147.016 -0.94269931 70.293694
1147.3149 -2.4421389 70.107986
1146.351 -4.2932811 71.425797
1146.649 -5.789011 71.240547
1146.946 -7.28474 71.055298
1147.244 -8.7804699 70.870041
1147.541 -10.2762 70.684792
1147.839 -11.77193 70.499527
1148.136 -13.26766 70.314293
1148.434 -14.76339 70.129028
1148.731 -16.259121 69.943771
1147.76 -18.07316 71.266228
1148.057 -19.56518 71.081436
1149.624 -20.746309 69.388023
1148.651 -22.54921 70.711853
1150.219 -23.73777 69.017509
1150.516 -25.2335 68.832253
1152.0861 -26.433201 67.136566
1145.985 107.8307 57.398819
1143.877 105.07 60.155109
1140.557 101.7279 64.388481
1140.864 100.1858 64.197479
1138.748 97.465912 66.958832
1139.053 95.931213 66.768753
1139.359 94.396507 66.578667
1139.6639 92.861816 66.388588
1138.755 90.753113 67.676498
1139.059 89.222107 67.486877
1139.364 87.691116 67.297256
1139.668 86.160133 67.107643
1139.973 84.62915 66.918022
1139.0601 82.542679 68.208733
1138.145 80.463661 69.50032
1138.448 78.940086 69.311623
1137.531 76.8722 70.604584
1137.833 75.352348 70.416344
1138.135 73.832497 70.228104
1138.438 72.312637 70.039864
1138.74 70.792793 69.851624
1139.042 69.272926 69.663383
1139.345 67.753082 69.475143
1139.647 66.233223 69.286903
1138.723 64.198723 70.584053
1139.025 62.682579 70.396271
1139.326 61.166439 70.208488
1138.4 59.146801 71.507423
1138.701 57.634369 71.320107
1139.001 56.121941 71.132782
1139.302 54.609501 70.945457
1139.603 53.097069 70.758141
1139.288 51.342159 71.315376
1139.588 49.831581 71.128281
1139.889 48.321011 70.941193
1140.806 47.047352 70.00885
1141.1071 45.53492 69.821533
1141.408 44.02248 69.634209
1141.0909 42.278702 70.192818
1141.391 40.768131 70.00573
1141.691 39.257549 69.818626
1141.9919 37.746971 69.631554
1142.292 36.236401 69.44445
1142.593 34.72583 69.257362
1142.8929 33.215248 69.070267
1143.194 31.70467 68.883179
1143.494 30.194099 68.696083
1143.795 28.683519 68.508987
1144.095 27.172951 68.321899
1144.396 25.662371 68.134804
1144.696 24.1518 67.947723
1144.996 22.64122 67.76062
1145.297 21.13064 67.573532
1145.597 19.62007 67.386436
1144.65 17.706209 68.698486
1144.949 16.199341 68.511848
1145.249 14.69248 68.325218
1145.549 13.18561 68.138588
1144.597 11.29031 69.452927
1144.896 9.7871552 69.266747
1145.1949 8.2840023 69.080582
1144.241 6.4035301 70.396797
1144.5389 4.904088 70.211098
1144.838 3.4046481 70.025383
1145.136 1.905207 69.839668
1145.434 0.40576541 69.653954
1145.7321 -1.093678 69.468239
1144.7729 -2.9481559 70.787643
1145.0699 -4.4438858 70.602386
1145.368 -5.9396162 70.417137
1145.665 -7.4353452 70.23188
1145.963 -8.9310751 70.046631
1146.26 -10.4268 69.861366
1146.558 -11.92254 69.676117
1146.855 -13.41826 69.490868
1147.153 -14.91399 69.305618
1147.45 -16.409719 69.120361
1146.483 -18.223391 70.444862
1146.7791 -19.71541 70.260071
1148.343 -20.89691 68.564598
1147.373 -22.69944 69.89048
1147.67 -24.19146 69.705688
1147.9659 -25.683479 69.520897
1144.6479 107.6736 56.53965
1144.958 106.1129 56.346359
1139.236 101.5726 63.539532
1139.543 100.0305 63.34853
1137.434 97.311394 66.11396
1137.739 95.77668 65.923882
1138.0439 94.241989 65.733803
1137.139 92.129936 67.0233
1137.444 90.598953 66.833679
1137.748 89.067963 66.644058
1138.053 87.536957 66.454437
1138.3571 86.005981 66.264816
1138.662 84.474998 66.075203
1136.537 81.833817 68.850281
1136.84 80.310249 68.661583
1137.1429 78.786682 68.472893
1136.229 76.71917 69.767899
1136.531 75.199318 69.579659
1136.834 73.679466 69.391411
1137.136 72.159607 69.203171
1137.438 70.639763 69.014931
1137.741 69.119904 68.826691
1138.043 67.600037 68.638451
1138.345 66.080193 68.450211
1137.425 64.046066 69.749397
1137.726 62.529919 69.561607
1138.028 61.013779 69.373833
1137.104 58.994511 70.67482
1137.405 57.482079 70.487503
1137.7061 55.96965 70.300179
1138.007 54.457211 70.112846
1138.308 52.94479 69.925537
1137.994 51.19006 70.483803
1138.295 49.679482 70.2967
1138.595 48.168911 70.109596
1138.896 46.658329 69.922523
1139.196 45.147751 69.73542
1139.496 43.63718 69.548332
1139.797 42.126598 69.361237
1140.097 40.616032 69.174149
1140.3979 39.10545 68.987053
1140.698 37.594879 68.799957
1141.6169 36.308041 67.86499
1141.299 34.57373 68.425781
1141.599 33.063148 68.238693
1141.9 31.55258 68.05159
1142.2 30.042 67.864502
1143.121 28.74588 66.928383
1142.801 27.020849 67.490318
1143.1021 25.510269 67.303223
1143.402 23.999701 67.116127
1143.703 22.48912 66.929039
1144.0031 20.97855 66.741951
1144.304 19.46797 66.554863
1144.604 17.95739 66.367767
1144.9041 16.446819 66.180672
1145.205 14.93624 65.993584
1144.2581 13.03389 67.309036
1144.558 11.52702 67.122414
1143.609 9.6358023 68.439247
1143.908 8.1326494 68.253082
1142.957 6.252552 69.571358
1143.255 4.7531109 69.385643
1143.553 3.25367 69.199928
1143.8521 1.7542289 69.014214
1144.15 0.25478759 68.828506
1143.194 -1.603032 70.149483
1143.4919 -3.0987599 69.964233
1143.7889 -4.594491 69.778976
1144.087 -6.0902209 69.593727
1144.384 -7.5859489 69.40847
1144.682 -9.0816793 69.223221
1144.979 -10.57741 69.037956
1145.277 -12.07314 68.852707
1145.574 -13.56887 68.667458
1145.8719 -15.0646 68.482208
1144.908 -16.881599 69.808289
1145.205 -18.373619 69.623497
1145.502 -19.865641 69.438713
1145.798 -21.357651 69.253906
1146.095 -22.84967 69.069107
1146.392 -24.34169 68.884323
1146.689 -25.83371 68.699532
1136.712 100.8218 64.169899
1137.0179 99.283401 63.979359
1136.119 97.156853 65.269096
1136.424 95.622147 65.079018
1136.73 94.087463 64.888939
1135.828 91.975777 66.180481
1136.132 90.444794 65.99086
1136.437 88.913803 65.801239
1136.741 87.382812 65.611618
1137.046 85.851822 65.421997
1137.35 84.320839 65.232384
1136.443 82.235123 66.527184
1135.535 80.156853 67.822853
1135.838 78.633278 67.634148
1134.927 76.566139 68.931213
1135.23 75.04628 68.742973
1135.532 73.526428 68.554733
1135.834 72.006577 68.366478
1137.353 71.01545 66.690643
1136.439 68.966873 67.990005
1136.741 67.447006 67.801758
1137.043 65.927147 67.613518
1137.3459 64.407303 67.42527
1136.428 62.377258 68.726967
1136.729 60.861118 68.539177
1135.809 58.842232 69.842216
1136.11 57.3298 69.654892
1136.411 55.81736 69.467583
1137.936 54.796539 67.788063
1137.012 52.7925 69.092934
1136.7 51.03796 69.652206
1137.001 49.527378 69.465111
1137.301 48.016811 69.278023
1137.6021 46.506229 69.090927
1137.902 44.995659 68.903839
1138.203 43.485081 68.716743
1139.118 42.205479 67.781677
1139.4189 40.69305 67.594353
1139.104 38.95335 68.155472
1140.021 37.66819 67.219711
1139.705 35.932201 67.781288
1140.005 34.421631 67.594193
1140.306 32.911049 67.407097
1140.606 31.40048 67.220009
1140.907 29.8899 67.032913
1141.825 28.593599 66.095779
1142.126 27.081169 65.908447
1142.427 25.568729 65.72113
1142.728 24.056299 65.533813
1143.0291 22.543871 65.346489
1142.709 20.82645 65.910362
1143.01 19.31587 65.723267
1143.3101 17.80529 65.536179
1143.611 16.29472 65.349083
1143.911 14.78414 65.161987
1142.968 12.88216 66.479507
1143.267 11.3753 66.292877
1143.567 9.868434 66.106239
1142.621 7.981298 67.425591
1141.673 6.1015739 68.745903
1141.9709 4.6021328 68.560188
1142.269 3.1026931 68.374481
1142.567 1.603251 68.188766
1142.866 0.1038098 68.003052
1143.1639 -1.395633 67.817337
1142.2111 -3.2493639 69.140823
1142.5081 -4.7450948 68.955566
1142.806 -6.2408252 68.770317
1143.103 -7.7365541 68.58506
1143.401 -9.2322836 68.399811
1143.698 -10.72801 68.214546
1143.996 -12.22374 68.029297
1144.293 -13.71947 67.844048
1144.5909 -15.2152 67.658798
1143.63 -17.03183 68.986923
1143.927 -18.523849 68.802132
1142.964 -20.32933 70.131592
1144.521 -21.507879 68.432541
1144.817 -22.999901 68.247749
1136.595 101.2621 61.841629
1136.901 99.719948 61.65062
1136.006 97.590088 62.94191
1135.11 95.467621 64.234154
1135.415 93.93293 64.044083
1135.7209 92.398232 63.854
1134.821 90.290642 65.148041
1135.126 88.759644 64.95842
1135.4301 87.228653 64.768799
1135.735 85.69767 64.579178
1136.0389 84.166687 64.389557
1133.927 81.527 67.172821
1135.439 80.554062 65.497238
1134.533 78.479874 66.795418
1133.626 76.413101 68.094513
1133.928 74.89325 67.906273
1134.23 73.373398 67.718033
1134.533 71.853554 67.529793
1136.048 70.862053 65.851913
1136.351 69.338478 65.663208
1135.4399 67.293983 66.965073
1135.7419 65.774117 66.776817
1136.0439 64.254272 66.588577
1136.3459 62.734409 66.400337
1135.431 60.708462 67.704536
1135.7321 59.19231 67.516762
1134.8149 57.177509 68.822289
1135.115 55.665081 68.634972
1135.416 54.152649 68.447647
1135.717 52.640221 68.260323
1135.407 50.88586 68.820633
1135.707 49.375278 68.63353
1136.0081 47.864712 68.446442
1136.92 46.590488 67.51104
1137.2209 45.07806 67.323723
1137.522 43.56562 67.136391
1137.823 42.0532 66.949066
1138.124 40.54076 66.761749
1137.8101 38.80125 67.323891
1138.111 37.29068 67.136803
1138.411 35.780109 66.949699
1138.712 34.269531 66.762611
1139.012 32.758949 66.575523
1139.312 31.248381 66.388428
1139.613 29.737801 66.201332
1140.53 28.441311 65.263184
1140.8311 26.928881 65.075851
1141.132 25.416451 64.888527
1141.433 23.90402 64.70121
1141.115 22.184919 65.265877
1141.416 20.674351 65.078781
1141.7159 19.163771 64.891693
1142.017 17.6532 64.704597
1142.317 16.14262 64.517502
1142.6169 14.63204 64.330406
1141.677 12.73044 65.649963
1141.9771 11.22357 65.463333
1142.277 9.7167082 65.276703
1141.333 7.829946 66.598091
1140.389 5.9505959 67.920448
1140.687 4.4511542 67.734734
1140.985 2.951714 67.549019
1141.283 1.452273 67.363312
1141.5811 -0.04716878 67.177597
1140.632 -1.90424 68.502663
1140.9301 -3.3999691 68.317413
1141.2271 -4.895699 68.132156
1141.525 -6.3914289 67.946907
1141.822 -7.8871579 67.76165
1142.12 -9.3828878 67.576401
1142.417 -10.87862 67.391136
1142.715 -12.37435 67.205887
1143.012 -13.87008 67.020638
1143.3101 -15.36581 66.835388
1142.3521 -17.18206 68.165558
1142.649 -18.67408 67.980766
1142.946 -20.1661 67.795967
1143.243 -21.65811 67.611183
1143.5389 -23.150129 67.426376
1134.689 97.435181 62.095001
1134.995 95.896767 61.904461
1134.101 93.778397 63.199211
1134.406 92.243698 63.00914
1133.51 90.136482 64.305222
1133.8149 88.605492 64.115601
1132.916 86.509392 65.413101
1133.22 84.982109 65.223953
1133.524 83.454826 65.034782
1132.6219 81.373596 66.334084
1132.925 79.850029 66.145393
1133.228 78.326462 65.95668
1133.531 76.802902 65.767982
1132.626 74.740219 67.06958
1132.929 73.22036 66.88134
1133.231 71.700508 66.693092
1135.047 69.185066 64.824478
1134.1379 67.140953 66.128372
1134.4399 65.621094 65.940132
1134.7419 64.101227 65.751892
1135.045 62.581379 65.563637
1134.132 60.555801 66.869888
1134.434 59.03965 66.682114
1133.519 57.025219 67.989693
1133.8199 55.512791 67.802361
1134.121 54.000351 67.615044
1134.422 52.48793 67.427719
1134.113 50.733761 67.989037
1134.413 49.223179 67.801949
1134.714 47.712608 67.614853
1135.625 46.438198 66.678429
1135.926 44.92577 66.491096
1136.2271 43.413342 66.303787
1136.527 41.900909 66.116463
1136.828 40.38847 65.929138
1136.516 38.649151 66.492302
1136.817 37.13858 66.305206
1137.1169 35.62801 66.118118
1137.418 34.117432 65.931023
1137.718 32.60685 65.743927
1138.019 31.096279 65.556839
1138.319 29.585699 65.369751
1139.235 28.289021 64.430557
1139.536 26.77659 64.24324
1139.8361 25.26416 64.055923
1139.521 23.5434 64.621384
1139.822 22.03282 64.434288
1140.1219 20.522249 64.247192
1140.422 19.011669 64.060097
1140.723 17.501089 63.873009
1141.0229 15.99052 63.685921
1140.087 14.08558 65.007057
1140.387 12.57871 64.820427
1140.686 11.07185 64.633797
1139.7469 9.1817455 65.956757
1138.806 7.2990589 67.280708
1139.104 5.7996178 67.094994
1139.403 4.3001771 66.909286
1139.701 2.800736 66.723572
1139.999 1.301295 66.537857
1140.297 -0.1981466 66.352142
1140.595 -1.69759 66.166428
1139.649 -3.5505731 67.494003
1139.946 -5.0463028 67.308746
1141.49 -6.1959119 65.609291
1141.788 -7.6953521 65.423576
1142.087 -9.1947947 65.237862
1142.385 -10.69423 65.052147
1142.683 -12.19368 64.86644
1141.731 -14.02068 66.197227
1142.0291 -15.51641 66.011978
1142.326 -17.01214 65.826721
1141.371 -18.82431 67.159393
1141.668 -20.31633 66.974586
1141.965 -21.80835 66.789803
1142.262 -23.300369 66.605011
1133.371 97.280281 61.2481
1133.677 95.741867 61.05756
1132.786 93.623871 62.354351
1133.092 92.089172 62.164268
1131.001 89.410156 64.950653
1131.304 87.882889 64.76149
1132.808 86.920349 63.083149
1131.912 84.828331 64.383163
1132.2159 83.301064 64.194008
1131.318 81.220177 65.495354
1131.62 79.696617 65.306648
1131.924 78.173058 65.117943
1132.2271 76.64949 64.929237
1131.325 74.587181 66.232887
1131.627 73.067329 66.044647
1131.929 71.547478 65.856407
1132.2321 70.027618 65.668167
1132.5341 68.507767 65.479927
1132.8361 66.987923 65.291679
1133.139 65.468063 65.103439
1133.441 63.9482 64.915199
1133.743 62.428341 64.726959
1134.045 60.908489 64.538719
1133.135 58.88699 65.847458
1133.437 57.37085 65.659683
1132.525 55.3605 66.969757
1132.826 53.848068 66.78244
1133.126 52.33564 66.595123
1133.427 50.823212 66.407791
1133.12 49.071079 66.970367
1134.0291 47.798351 66.03315
1135.548 46.757851 64.345207
1135.849 45.241711 64.157417
1134.931 43.261051 65.471184
1135.2321 41.748619 65.283859
1135.533 40.236191 65.096542
1135.834 38.723759 64.909218
1136.135 37.21133 64.721893
1136.4351 35.698898 64.534576
1136.736 34.186459 64.347252
1137.037 32.67403 64.159927
1137.338 31.1616 63.97261
1137.639 29.64917 63.78529
1137.9399 28.13674 63.597969
1138.24 26.62431 63.410641
1138.541 25.111879 63.22332
1138.2271 23.3913 63.789799
1139.1429 22.087009 62.848671
1138.828 20.37015 63.415619
1139.129 18.85957 63.228519
1139.429 17.349001 63.041431
1139.73 15.83842 62.85434
1138.796 13.93385 64.177513
1139.0959 12.42698 63.990879
1138.161 10.53355 65.315437
1138.46 9.0303965 65.129272
1138.759 7.5272431 64.9431
1137.8199 5.6486402 66.269539
1138.118 4.1491981 66.083817
1138.417 2.6497581 65.898117
1138.715 1.150316 65.712402
1139.0129 -0.34912509 65.526688
1139.311 -1.848568 65.340973
1139.61 -3.3480079 65.155273
1139.908 -4.8474488 64.969551
1140.2061 -6.34689 64.783836
1140.504 -7.8463302 64.598122
1140.802 -9.3457737 64.412407
1141.101 -10.84521 64.2267
1141.399 -12.34466 64.040993
1140.45 -14.17129 65.373817
1140.748 -15.66702 65.18856
1141.045 -17.162741 65.003311
1140.094 -18.974541 66.33802
1140.39 -20.46656 66.153229
1140.687 -21.95858 65.968437
1140.984 -23.4506 65.783653
1132.36 95.586967 60.210651
1132.666 94.048553 60.020111
1131.777 91.934647 61.319401
1130.8879 89.828178 62.619579
1131.192 88.29718 62.429958
1131.4969 86.76619 62.240341
1131.801 85.235207 62.05072
1130.908 83.14727 63.35323
1131.2111 81.620003 63.16407
1130.316 79.543213 64.467918
1130.619 78.019653 64.279213
1130.922 76.496094 64.090523
1130.0229 74.434151 65.396187
1131.528 73.448952 63.713108
1130.6281 71.39444 65.019707
1130.9301 69.874588 64.831467
1131.2321 68.354729 64.643227
1132.74 67.354691 62.958309
1131.837 65.315033 64.266747
1132.139 63.79517 64.078506
1132.441 62.275311 63.89027
1132.744 60.755459 63.702019
1133.046 59.2356 63.513779
1133.348 57.715752 63.325539
1133.651 56.1959 63.137299
1132.7419 54.185909 64.449471
1133.043 52.669769 64.261688
1132.132 50.670929 65.575188
1133.646 49.637482 63.886131
1133.948 48.121342 63.698349
1135.464 47.076771 62.007851
1134.551 45.08905 63.322781
1134.853 43.57291 63.134998
1135.1541 42.056759 62.94722
1135.4561 40.540619 62.759441
1134.538 38.57148 64.076607
1134.839 37.05904 63.88929
1135.14 35.546612 63.701969
1135.441 34.03418 63.514648
1135.7419 32.521751 63.32732
1136.043 31.009319 63.139999
1136.343 29.49688 62.952679
1136.644 27.984449 62.765362
1136.9449 26.472019 62.578041
1137.246 24.959591 62.39072
1136.934 23.239201 62.958221
1137.234 21.728621 62.77113
1137.535 20.21805 62.58403
1137.835 18.70747 62.396938
1138.135 17.196899 62.20985
1138.436 15.68632 62.022751
1137.506 13.78212 63.34798
1136.574 11.88535 64.674118
1136.873 10.3822 64.487953
1137.172 8.8790436 64.301773
1136.238 6.9971018 65.629799
1136.536 5.4976611 65.444077
1136.834 3.998219 65.258369
1137.132 2.4987791 65.072662
1137.431 0.99933767 64.886948
1137.729 -0.50010371 64.701233
1138.027 -1.999547 64.515518
1138.325 -3.498986 64.329803
1138.624 -4.9984279 64.144096
1138.922 -6.497869 63.958382
1139.22 -7.9973092 63.772671
1139.5179 -9.4967518 63.586948
1139.817 -10.99619 63.401241
1140.115 -12.49564 63.21553
1140.413 -13.99507 63.029819
1139.467 -15.81762 64.36515
1139.764 -17.313351 64.179901
1140.062 -18.80908 63.99464
1140.359 -20.30481 63.809391
1140.657 -21.800541 63.624142
1139.7061 -23.60083 64.96228
1140.0031 -25.09284 64.777489
1131.042 95.432068 59.363739
1131.348 93.893646 59.173199
1130.463 91.780113 60.474541
1129.576 89.674019 61.77676
1129.881 88.143028 61.587139
1130.1851 86.612038 61.397511
1130.49 85.081047 61.20789
1130.7939 83.550056 61.018269
1129.903 81.466217 62.323292
1129.011 79.389809 63.629181
1129.314 77.866241 63.440479
1129.6169 76.342682 63.251781
1129.92 74.819107 63.06308
1130.223 73.295547 62.874371
1130.526 71.77198 62.68568
1130.829 70.248413 62.496971
1131.132 68.724854 62.30827
1131.4351 67.201279 62.119572
1131.738 65.677719 61.93087
1130.838 63.642139 63.24181
1131.14 62.12228 63.05357
1131.442 60.602421 62.86533
1131.744 59.082569 62.67709
1132.047 57.562721 62.48885
1132.349 56.04287 62.30061
1132.651 54.52301 62.11237
1132.953 53.003151 61.924129
1132.046 51.000961 63.239262
1132.348 49.484821 63.051479
1133.86 48.443588 61.359402
1134.163 46.92374 61.171162
1133.252 44.93639 62.488129
1133.554 43.42025 62.30035
1133.856 41.904099 62.112572
1134.157 40.387959 61.924789
1134.459 38.871819 61.737
1134.76 37.355671 61.549221
1133.845 35.394329 62.869362
1134.146 33.881889 62.682041
1134.446 32.369461 62.49472
1134.7469 30.857031 62.3074
1135.048 29.344601 62.120071
1135.349 27.832159 61.932751
1135.65 26.319731 61.74543
1135.339 24.597679 62.313728
1135.64 23.087099 62.12664
1135.9399 21.57653 61.939541
1136.241 20.06595 61.752449
1136.541 18.55537 61.565361
1136.842 17.0448 61.378269
1137.142 15.53422 61.19117
1137.443 14.02365 61.004082
1136.515 12.12353 62.33181
1135.5861 10.23084 63.66045
1135.885 8.7276917 63.474281
1134.953 6.8461251 64.804337
1135.252 5.346683 64.618629
1135.55 3.8472421 64.432922
1135.848 2.347801 64.247208
1136.146 0.84835988 64.061493
1136.4449 -0.6510815 63.875778
1136.743 -2.1505251 63.690071
1137.041 -3.6499641 63.50436
1137.339 -5.149405 63.318642
1137.6379 -6.6488471 63.132931
1137.936 -8.1482868 62.94722
1138.234 -9.6477299 62.761501
1138.532 -11.14717 62.57579
1138.8311 -12.64661 62.390079
1137.8879 -14.4725 63.727001
1138.186 -15.96822 63.54174
1138.483 -17.463949 63.356491
1138.781 -18.95969 63.17123
1139.078 -20.45542 62.985981
1139.376 -21.951151 62.800732
1137.183 -24.055229 65.666313
1137.479 -25.543539 65.481956
1129.725 95.277168 58.51683
1130.031 93.738747 58.32629
1129.149 91.625587 59.629681
1128.265 89.519867 60.933929
1128.5699 87.988876 60.744308
1128.874 86.457878 60.554691
1129.179 84.926903 60.36507
1129.483 83.395912 60.175449
1128.595 81.312431 61.48251
1128.899 79.785156 61.29335
1128.009 77.712837 62.601749
1128.312 76.18927 62.41304
1128.615 74.665703 62.224339
1128.918 73.142143 62.035641
1129.2209 71.618584 61.846939
1129.524 70.095009 61.658241
1129.827 68.571442 61.46954
1130.13 67.047867 61.280842
1130.433 65.524307 61.09214
1129.536 63.489101 62.405121
1129.838 61.96925 62.216881
1130.14 60.44939 62.028641
1130.443 58.929531 61.840401
1130.745 57.409691 61.652161
1131.047 55.889832 61.463921
1131.35 54.36998 61.275681
1131.652 52.850121 61.08744
1130.748 50.848301 62.40461
1132.256 49.81041 60.710949
1132.559 48.29055 60.522709
1132.861 46.770699 60.334469
1133.163 45.250851 60.146229
1132.255 43.26759 61.465698
1132.557 41.751438 61.27792
1134.0699 40.69128 59.581501
1133.16 38.719158 60.902359
1133.462 37.203011 60.714569
1133.7629 35.686871 60.526791
1134.0649 34.170731 60.339008
1134.366 32.654591 60.15123
1133.452 30.704741 61.474789
1133.7531 29.19231 61.287472
1134.054 27.67988 61.100151
1133.745 25.95615 61.669231
1134.046 24.44558 61.48214
1134.3459 22.934999 61.29504
1134.647 21.424431 61.107948
1134.947 19.913851 60.92086
1135.248 18.403271 60.733768
1135.548 16.8927 60.54668
1135.848 15.38212 60.359581
1136.149 13.87155 60.172489
1135.224 11.97181 61.50227
1135.524 10.46494 61.315632
1134.598 8.5763397 62.646778
1134.896 7.0731869 62.460609
1133.968 5.1957049 63.793179
1134.266 3.696264 63.607471
1134.564 2.1968229 63.421761
1136.092 1.060576 61.715919
1135.161 -0.80205929 63.050331
1135.459 -2.301502 62.86462
1135.757 -3.8009419 62.678902
1136.0551 -5.300384 62.493191
1136.354 -6.7998252 62.30748
1136.652 -8.299264 62.121769
1136.95 -9.798708 61.93605
1137.248 -11.29815 61.75034
1137.546 -12.79759 61.564621
1137.845 -14.29703 61.37891
1136.905 -16.11883 62.71833
1137.202 -17.614559 62.533081
1137.5 -19.110291 62.34782
1137.797 -20.60602 62.162571
1138.095 -22.101749 61.977322
1135.908 -24.20508 64.846977
1136.204 -25.693399 64.662643
1128.713 93.583847 57.479389
1127.834 91.471062 58.784821
1126.954 89.365707 60.09111
1127.259 87.834717 59.901489
1127.563 86.303726 59.711868
1127.868 84.772743 59.522251
1128.172 83.24176 59.33263
1127.287 81.158653 60.641739
1127.5909 79.631378 60.452579
1127.895 78.104103 60.263409
1127.007 76.035873 61.57431
1128.502 75.049553 59.88509
1128.806 73.52227 59.69593
1129.11 71.994987 59.506771
1128.219 69.941597 60.8195
1128.522 68.41803 60.630798
1130.021 67.413162 58.939289
1129.1281 65.370903 60.253399
1129.432 63.84734 60.064701
1129.734 62.323769 59.875999
1130.038 60.800201 59.687302
1129.141 58.776501 61.003712
1129.443 57.256649 60.815472
1129.746 55.736801 60.627232
1130.048 54.216942 60.43898
1130.35 52.69709 60.25074
1130.652 51.177231 60.0625
1130.955 49.657379 59.87426
1131.257 48.13752 59.68602
1132.765 47.088112 57.988991
1131.8621 45.09782 59.30954
1132.1639 43.577961 59.1213
1132.4659 42.058109 58.93306
1132.769 40.53825 58.744808
1133.071 39.018391 58.556568
1132.163 37.05035 59.879921
1133.675 35.978691 58.180092
1133.978 34.458832 57.991852
1134.28 32.93898 57.8036
1133.37 30.985781 59.128799
1133.059 26.01516 60.080219
1133.36 24.502729 59.892899
1133.052 22.7829 60.463459
1133.962 21.477871 59.518261
1133.653 19.761749 60.089279
1134.563 18.452999 59.143608
1134.864 16.940571 58.956291
1134.5551 15.23002 59.528
1134.855 13.71945 59.340912
1133.934 11.82008 60.672729
1134.234 10.31322 60.486092
1133.3101 8.4249868 61.819279
1132.385 6.544168 63.153439
1132.683 5.0447268 62.967731
1132.9821 3.545285 62.782009
1133.28 2.045845 62.596298
1134.8051 0.90922368 60.88842
1133.876 -0.95303792 62.224869
1134.175 -2.452481 62.039162
1134.473 -3.951921 61.853451
1134.771 -5.4513621 61.667728
1135.069 -6.9508028 61.482021
1135.368 -8.450243 61.29631
1135.666 -9.9496861 61.1106
1134.731 -11.78224 62.45068
1136.262 -12.94857 60.73917
1136.5601 -14.44801 60.553459
1135.624 -16.26943 61.89492
1135.921 -17.76516 61.709671
1136.219 -19.2609 61.52441
1136.516 -20.75663 61.339161
1136.814 -22.25235 61.1539
1135.873 -24.051519 62.49818
1136.1689 -25.543539 62.313381
1125.338 90.742554 59.437908
1125.6429 89.211563 59.248291
1125.947 87.680557 59.05867
1126.252 86.149567 58.869049
1126.556 84.618584 58.679428
1126.861 83.087601 58.489811
1127.165 81.55661 58.30019
1127.47 80.02562 58.110569
1127.774 78.494629 57.920952
1128.079 76.963654 57.731331
1128.3831 75.432663 57.54171
1127.498 73.368477 58.855148
1127.802 71.841209 58.665989
1128.106 70.313927 58.47683
1129.601 69.308701 56.78323
1129.906 67.77771 56.593609
1127.824 65.217491 59.414669
1128.127 63.693932 59.225971
1128.4301 62.170361 59.03727
1128.733 60.646801 58.84856
1129.036 59.12323 58.659859
1129.339 57.599659 58.471161
1129.642 56.076099 58.282459
1129.9449 54.552528 58.093761
1130.248 53.028969 57.90506
1129.351 51.0242 59.225811
1129.653 49.504341 59.037571
1129.955 47.984489 58.849331
1131.46 46.9347 57.150249
1131.7629 45.41114 56.961552
1132.066 43.887569 56.77285
1132.369 42.36401 56.584148
1132.672 40.840439 56.395451
1132.975 39.316879 56.206749
1132.072 37.345509 57.531639
1133.5811 36.269741 55.82935
1132.676 34.305801 57.155159
1134.187 33.22261 55.45195
1133.281 31.26609 56.778679
1133.583 29.746241 56.590439
1133.885 28.226379 56.402191
1131.764 25.862881 59.24762
1132.0649 24.350439 59.060291
1133.579 23.252411 57.35524
1132.666 21.325581 58.68565
1132.36 19.60965 59.257702
1133.2679 18.30072 58.311001
1133.569 16.78829 58.12368
1133.261 15.07792 58.696419
1133.561 13.56735 58.509331
1132.6429 11.66836 59.843189
1132.943 10.16149 59.656551
1132.0229 8.2736349 60.991779
1132.322 6.770483 60.805611
1132.621 5.2673302 60.619438
1131.698 3.3943081 61.956558
1133.219 2.261024 60.247089
1132.2939 0.39542571 61.58514
1133.817 -0.74528259 59.874748
1134.116 -2.2484331 59.68858
1133.189 -4.1028991 61.028
1133.4871 -5.6023402 60.842281
1133.785 -7.1017809 60.65657
1134.083 -8.6012211 60.47086
1134.382 -10.10066 60.285141
1134.6801 -11.6001 60.09943
1134.978 -13.09955 59.913719
1135.276 -14.59899 59.728001
1134.343 -16.42004 61.07151
1134.64 -17.91577 60.886261
1134.938 -19.411501 60.701
1135.235 -20.90723 60.515751
1135.533 -22.40296 60.33049
1134.595 -24.20175 61.676811
1134.891 -25.693769 61.49202
1124.027 90.588387 58.595089
1124.332 89.057404 58.405472
1124.636 87.526413 58.215851
1124.941 85.995407 58.02623
1125.245 84.464432 57.836609
1126.7321 83.488487 56.14468
1127.037 81.953796 55.954601
1126.1591 79.871468 57.26775
1126.463 78.340477 57.078129
1126.7679 76.809486 56.888512
1128.2581 75.814987 55.194279
1127.377 73.747513 56.50927
1128.869 72.745598 54.814121
1129.174 71.210892 54.624039
1129.479 69.676193 54.43396
1129.7841 68.141487 54.243881
1128.899 66.092567 55.561161
1128.0129 64.051041 56.87941
1128.317 62.523762 56.69025
1128.62 60.99649 56.501091
1127.731 58.969818 57.821129
1128.0341 57.446251 57.632431
1128.337 55.922691 57.443729
1128.64 54.39912 57.25502
1128.943 52.875561 57.06633
1129.246 51.35199 56.877621
1129.549 49.82843 56.688919
1129.8521 48.304859 56.500221
1131.354 47.250992 54.798641
1131.658 45.723709 54.609482
1130.761 43.734161 55.93412
1131.064 42.210602 55.745419
1131.3669 40.687031 55.556721
1131.67 39.163471 55.368019
1131.973 37.6399 55.17931
1132.276 36.116341 54.990608
1132.579 34.59277 54.80191
1132.882 33.069199 54.613209
1133.1851 31.545639 54.424511
1133.489 30.02207 54.235809
1133.792 28.498501 54.047112
1130.469 25.71059 58.415009
1130.769 24.19816 58.227692
1131.0699 22.68573 58.040371
1131.371 21.1733 57.85305
1131.672 19.66086 57.66573
1131.973 18.14843 57.478401
1132.2729 16.636 57.29108
1132.574 15.12357 57.10376
1132.2679 13.41525 57.67775
1132.568 11.90467 57.49065
1132.869 10.3941 57.303558
1131.952 8.502903 58.640381
1132.252 6.9960389 58.453751
1131.333 5.1159792 59.79195
1131.632 3.6128261 59.60577
1131.931 2.109673 59.419601
1132.23 0.6065203 59.233429
1132.5291 -0.89663392 59.047249
1132.828 -2.399785 58.86108
1133.127 -3.9029391 58.674911
1132.203 -5.7533178 60.01683
1132.501 -7.252759 59.83112
1132.799 -8.7521982 59.645401
1133.097 -10.25164 59.45969
1133.396 -11.75108 59.273979
1133.694 -13.25052 59.088261
1133.9919 -14.74996 58.90255
1134.29 -16.249411 58.716839
1134.589 -17.74884 58.531132
1134.887 -19.248289 58.345409
1133.954 -21.057831 59.692341
1134.252 -22.55356 59.507092
1134.549 -24.04929 59.321831
1133.614 -25.844 60.67065
1122.7159 90.434242 57.75227
1124.196 89.472771 56.060139
1124.502 87.938072 55.87006
1124.807 86.403374 55.679981
1125.1121 84.868683 55.489899
1125.417 83.333969 55.29982
1126.902 82.350258 53.604889
1126.028 80.264557 54.919659
1126.333 78.729874 54.72958
1126.6379 77.195168 54.539501
1128.126 76.196609 52.842731
1127.249 74.125771 54.15934
1128.738 73.119789 52.461651
1127.859 71.056374 53.779171
1129.35 70.042961 52.08057
1128.47 67.986969 53.399021
1128.775 66.452271 53.208939
1129.08 64.917557 53.01886
1128.197 62.876431 54.3391
1128.502 61.34544 54.149479
1127.616 59.31543 55.471149
1127.92 57.788151 55.28199
1128.224 56.260868 55.092831
1128.527 54.733601 54.903671
1128.8311 53.206322 54.714512
1127.941 51.198589 56.038891
1128.244 49.675018 55.850189
1128.547 48.151451 55.661491
1130.046 47.09721 53.95787
1130.35 45.569931 53.7687
1130.6541 44.04266 53.57954
1130.958 42.515381 53.390381
1131.261 40.988098 53.201221
1131.5649 39.460819 53.012058
1131.869 37.93354 52.822899
1132.173 36.406269 52.633739
1132.476 34.87899 52.44458
1132.78 33.351719 52.255421
1131.881 31.392229 53.58577
1132.184 29.86866 53.397072
1132.4871 28.3451 53.20837
1132.79 26.821529 53.019669
1131.886 24.88061 54.352329
1132.189 23.36075 54.164089
1130.076 21.021009 57.020439
1130.376 19.508579 56.833118
1131.886 18.398661 55.122601
1130.978 16.483721 56.458469
1131.2791 14.97128 56.271149
1131.58 13.45885 56.083832
1131.88 11.94642 55.896511
1131.575 10.242 56.471981
1131.875 8.7314243 56.284889
1130.9611 6.8443131 57.62421
1130.046 4.9646268 58.964451
1131.561 3.830585 57.250938
1131.861 2.32372 57.064308
1132.16 0.81685609 56.87767
1132.46 -0.69000828 56.69104
1132.76 -2.196872 56.50441
1133.059 -3.703737 56.31778
1132.139 -5.5574422 57.66124
1131.217 -7.403738 59.005661
1131.515 -8.9031773 58.81995
1131.813 -10.40262 58.634239
1132.111 -11.90206 58.448521
1132.41 -13.4015 58.26281
1132.708 -14.90094 58.077099
1133.006 -16.400379 57.89138
1132.673 -21.208441 58.868931
1132.9709 -22.70417 58.683681
1133.2679 -24.1999 58.498421
1122.882 89.318237 55.215271
1124.361 88.349007 53.520142
1124.667 86.810593 53.329601
1124.973 85.272179 53.139061
1125.2791 83.733757 52.948521
1126.761 82.745956 51.251129
1125.891 80.656937 52.56744
1126.197 79.118538 52.3769
1127.681 78.119583 50.678131
1127.988 76.577461 50.487129
1127.115 74.503304 51.805279
1127.421 72.96489 51.614738
1127.7271 71.426483 51.424198
1128.033 69.888062 51.233662
1127.156 67.832443 52.55415
1127.4611 66.297737 52.364071
1127.766 64.763039 52.173988
1128.071 63.22834 51.98391
1127.1899 61.191292 53.30666
1127.495 59.660301 53.117039
1127.799 58.129311 52.927422
1128.104 56.59832 52.737801
1128.408 55.067329 52.54818
1126.636 51.045181 55.20015
1126.939 49.52161 55.011452
1128.434 48.470711 53.306252
1129.931 47.412392 51.600071
1130.235 45.881401 51.41045
1130.54 44.35041 51.22084
1130.844 42.81942 51.031219
1131.149 41.288429 50.841591
1130.257 39.307041 52.171291
1130.561 37.77977 51.982121
1130.865 36.252491 51.792961
1131.168 34.725208 51.603809
1131.472 33.197929 51.414639
1130.576 31.238819 52.74704
1130.879 29.71526 52.558338
1131.182 28.19169 52.36964
1131.485 26.668119 52.180939
1131.788 25.14456 51.992241
1130.887 23.20772 53.3274
1132.394 22.097429 51.61483
1129.0811 19.356291 56.000511
1131.7939 18.648149 52.762669
1130.89 16.72986 54.10017
1131.191 15.21372 53.912392
1130.2841 13.30657 55.251221
1130.585 11.79413 55.0639
1130.886 10.2817 54.876579
1130.582 8.5793247 55.4533
1130.882 7.068748 55.266209
1129.9709 5.1857228 56.608028
1130.27 3.678859 56.421398
1131.783 2.5370209 54.704941
1132.084 1.026446 54.517841
1132.384 -0.48412889 54.33075
1132.6851 -1.994705 54.143661
1132.069 -5.3623261 55.301609
1131.15 -7.2119479 56.647572
1131.449 -8.7151022 56.461399
1130.5291 -10.5536 57.808781
1130.827 -12.05304 57.62307
1123.043 88.194099 52.673229
1123.349 86.655693 52.482689
1124.827 85.674927 50.78418
1126.306 84.68676 49.084702
1125.441 82.590683 50.40218
1125.7469 81.048561 50.211182
1126.054 79.506432 50.02018
1126.361 77.96431 49.829182
1126.667 76.422188 49.63818
1126.974 74.880074 49.447182
1126.103 72.809982 50.76783
1126.4091 71.271584 50.57729
1126.715 69.733162 50.386749
1127.021 68.194748 50.196209
1126.146 66.143211 51.519211
1126.452 64.608513 51.329128
1126.757 63.073811 51.13905
1127.062 61.539108 50.948971
1127.3669 60.00441 50.758888
1127.673 58.469711 50.56881
1127.978 56.935009 50.378731
1128.283 55.400311 50.188648
1128.588 53.865608 49.998569
1128.894 52.33091 49.808491
1128.011 50.32021 51.13649
1128.3149 48.789219 50.946869
1129.809 47.72681 49.238251
1128.924 45.727249 50.567631
1130.42 44.65741 48.858089
1130.725 43.1227 48.668011
1129.838 41.134281 49.998772
1130.142 39.603291 49.809151
1129.2531 37.62598 51.14135
1130.751 36.541309 49.429909
1129.86 34.57143 50.76302
1130.1639 33.044151 50.57386
1130.468 31.51687 50.384701
1129.574 29.56185 51.719601
1129.877 28.03828 51.530899
1130.1801 26.514721 51.342201
1130.483 24.99115 51.1535
1130.786 23.467581 50.964802
1131.089 21.944019 50.7761
1131.392 20.42045 50.587399
1130.4919 18.495119 51.92598
1130.795 16.975269 51.73774
1131.097 15.45541 51.5495
1130.194 13.54491 52.889961
1130.496 12.02877 52.702179
1130.797 10.51263 52.5144
1129.892 8.6169863 53.856659
1130.192 7.1045551 53.669331
1130.493 5.592123 53.48201
1130.189 3.895498 54.06044
1131.095 2.56726 53.107368
1130.79 0.87434602 53.68626
1131.0909 -0.63622862 53.499161
1131.391 -2.146805 53.312069
1131.692 -3.657382 53.124981
1131.9919 -5.1679559 52.937889
1131.078 -7.020916 54.285431
1131.377 -8.5277805 54.098801
1122.032 86.500793 51.63578
1123.506 85.519653 49.93523
1126.152 85.084671 46.723228
1125.29 82.985283 48.042252
1125.597 81.439438 47.850788
1125.905 79.8936 47.659328
1126.212 78.347771 47.467869
1126.52 76.801933 47.276409
1125.653 74.724777 48.598228
1124.786 72.655083 49.920929
1125.092 71.116669 49.730381
1125.3979 69.578247 49.539841
1125.703 68.039841 49.3493
1124.832 65.988693 50.674351
1125.137 64.453979 50.484268
1125.443 62.919281 50.294189
1125.748 61.384579 50.104111
1126.053 59.84988 49.914028
1126.358 58.315182 49.723949
1126.663 56.780479 49.533871
1126.969 55.245781 49.343788
1127.274 53.711079 49.153709
1127.579 52.17638 48.963631
1127.884 50.641682 48.77354
1128.1899 49.106979 48.583469
1128.495 47.572281 48.393391
1128.8 46.037579 48.2033
1129.105 44.50288 48.013229
1129.411 42.968182 47.823151
1129.7159 41.433479 47.63306
1130.021 39.898781 47.442989
1129.136 37.918152 48.776718
1129.4399 36.387161 48.587101
1129.745 34.856171 48.39748
1128.856 32.890369 49.733082
1129.16 31.363091 49.543919
1128.269 29.40844 50.880871
1128.572 27.88488 50.692169
1128.875 26.361309 50.503471
1129.178 24.83774 50.31477
1129.481 23.31418 50.12606
1129.7841 21.790609 49.93737
1130.087 20.26705 49.748661
1130.39 18.743481 49.559959
1130.693 17.21991 49.371262
1130.996 15.69635 49.18256
1130.098 13.78252 50.52457
1131.603 12.64922 48.805161
1130.702 10.74282 50.148079
1129.8 8.8438244 51.49197
1130.1021 7.3276811 51.304192
1130.403 5.8115392 51.116409
1129.499 3.9274049 52.462078
1131.007 2.7792521 50.740841
1130.1 0.90254188 52.08744
1130.401 -0.609891 51.90012
1130.702 -2.1223199 51.712799
1131.0031 -3.634753 51.525471
1130.698 -5.320055 52.106312
1130.999 -6.8306322 51.91922
1130.087 -8.6795053 53.26926
1122.186 85.364372 49.086281
1125.991 85.481827 44.35767
1126.3 83.928574 44.165291
1125.441 81.829552 45.486351
1126.918 80.822067 43.78054
1126.058 78.730461 45.10252
1126.366 77.180923 44.910591
1126.674 75.631371 44.718681
1125.811 73.554611 46.0425
1126.118 72.008781 45.85104
1126.426 70.462936 45.65958
1126.733 68.917107 45.468121
1125.866 66.858887 46.794281
1124.998 64.808121 48.121319
1125.304 63.269711 47.930779
1125.61 61.7313 47.740238
1125.916 60.192879 47.549702
1126.222 58.65448 47.359161
1126.528 57.116058 47.168621
1126.834 55.577648 46.978081
1127.14 54.03923 46.78754
1127.446 52.50082 46.597
1127.752 50.96241 46.40646
1128.058 49.424 46.215919
1128.364 47.88559 46.025379
1128.67 46.347179 45.834839
1128.976 44.808769 45.644299
1129.282 43.270359 45.453758
1129.588 41.731941 45.263222
1128.707 39.744251 46.598122
1129.012 38.209549 46.408039
1129.317 36.67485 46.21796
1128.433 34.702011 47.554649
1128.738 33.171021 47.365028
1127.8521 31.209311 48.70314
1128.156 29.68203 48.513981
1128.459 28.15476 48.324821
1128.7629 26.62748 48.135658
1129.067 25.100201 47.946499
1129.371 23.57292 47.757339
1129.674 22.04565 47.56818
1129.978 20.51837 47.379021
1129.0861 18.590071 48.72123
1129.389 17.066509 48.532532
1129.692 15.54294 48.34383
1128.796 13.62949 49.68787
1130.298 12.49581 47.966419
1129.401 10.58978 49.31139
1129.703 9.0699263 49.12315
1130.005 7.5500722 48.93491
1129.105 5.6588788 50.281761
1129.406 4.142736 50.093979
1129.708 2.6265919 49.906189
1128.8051 0.75025582 51.254829
1129.106 -0.76217711 51.067509
1129.407 -2.274606 50.880192
1129.708 -3.787039 50.692871
1129.405 -5.4721541 51.274731
1129.705 -6.9827299 51.087639
1130.005 -8.4933071 50.900539
1124.661 85.325439 43.50259
1124.97 83.772179 43.310211
1125.2791 82.218918 43.117828
1125.588 80.665657 42.925449
1125.896 79.112396 42.73307
1126.205 77.559151 42.540699
1125.347 75.475342 43.865639
1125.963 72.376251 43.4818
1126.271 70.826714 43.289879
1126.58 69.277161 43.097969
1125.717 67.215622 44.425671
1126.024 65.669777 44.234211
1125.1591 63.61937 45.563332
1124.292 61.576389 46.89333
1125.772 60.53513 45.181339
1126.079 58.993 44.99033
1126.386 57.450878 44.799339
1126.693 55.90876 44.608341
1126.999 54.366631 44.417339
1127.306 52.824509 44.226341
1126.434 50.80751 45.559559
1126.74 49.2691 45.369011
1127.046 47.73069 45.178471
1128.533 46.656021 43.462341
1128.84 45.113892 43.271339
1127.964 43.115452 44.606861
1128.27 41.577042 44.416321
1128.576 40.038631 44.22578
1128.882 38.50021 44.03524
1129.188 36.9618 43.8447
1129.494 35.423389 43.65416
1128.613 33.45092 44.992939
1127.731 31.48588 46.332588
1126.848 29.52825 47.67321
1127.151 28.000971 47.484051
1127.455 26.4737 47.294891
1127.759 24.946421 47.105721
1128.063 23.41914 46.916561
1128.366 21.89187 46.727402
1128.67 20.36459 46.538239
1127.781 18.436661 47.882488
1129.278 17.31003 46.15992
1129.582 15.78276 45.97076
1128.6899 13.86597 47.316391
1130.189 12.7282 45.592442
1129.296 10.81884 46.938992
1129.599 9.29527 46.75029
1129.902 7.7717052 46.561581
1129.006 5.877183 47.909969
1129.308 4.3573289 47.721729
1129.61 2.8374741 47.533489
1128.7111 0.95778942 48.883759
1129.0129 -0.55835372 48.69598
1129.314 -2.074496 48.508202
1129.616 -3.5906401 48.320419
1128.713 -5.451756 49.672951
1128.411 -7.13483 50.25605
1123.33 85.169037 42.647511
1123.639 83.615784 42.455132
1123.948 82.062523 42.262749
1126.892 80.031219 38.841061
1127.202 78.470543 38.647758
1124.636 72.22023 42.628769
1124.944 70.670677 42.436852
1125.2531 69.121132 42.24493
1125.561 67.571587 42.053009
1125.869 66.022041 41.861092
1126.177 64.472504 41.66917
1125.3149 62.42247 43.00029
1123.281 59.88308 45.855888
1125.9301 59.330799 42.617378
1123.8929 56.806259 45.474812
1125.3719 55.753479 43.75938
1125.679 54.211361 43.568378
1125.985 52.669231 43.37738
1126.292 51.12711 43.18639
1126.599 49.584991 42.99538
1125.729 47.575779 44.33157
1127.212 46.50074 42.613392
1127.519 44.958618 42.42239
1126.647 42.960548 43.759949
1126.953 41.422138 43.569408
1127.259 39.883732 43.378868
1127.5649 38.34531 43.188332
1127.871 36.8069 42.997791
1128.177 35.26849 42.807251
1128.483 33.73008 42.616711
1127.604 31.76169 43.958
1126.725 29.800739 45.300152
1127.0291 28.269751 45.110531
1127.334 26.73876 44.92091
1127.6379 25.207769 44.731289
1127.943 23.676781 44.54166
1128.2469 22.14579 44.352039
1127.3621 20.21081 45.697472
1127.666 18.683531 45.508301
1127.97 17.15625 45.319149
1128.274 15.62898 45.12999
1128.577 14.1017 44.940819
1128.881 12.57442 44.751659
1129.1851 11.04714 44.5625
1129.489 9.519866 44.373341
1129.792 7.992589 44.184181
1130.0959 6.465312 43.995022
1129.203 4.5711651 45.345451
1129.506 3.0475991 45.15675
1128.611 1.1645859 46.50856
1128.913 -0.35526779 46.32032
1129.2159 -1.875123 46.13208
1129.5179 -3.394978 45.943829
1127.418 -5.604043 48.84034
1127.118 -7.2869291 49.424469
1123.001 73.613747 41.967651
1123.309 72.064201 41.77573
1123.6169 70.514664 41.583809
1125.09 69.480057 39.868641
1125.399 67.926804 39.67627
1124.542 65.86602 41.008049
1124.85 64.316467 40.816139
1125.158 62.76693 40.624222
1124.299 60.720982 41.95784
1124.606 59.175152 41.766392
1122.575 56.65136 44.627899
1122.881 55.112942 44.437359
1124.358 54.05608 42.71944
1124.665 52.513962 42.528431
1124.9709 50.971828 42.33744
1125.278 49.42971 42.146439
1125.585 47.887581 41.955441
1125.891 46.345459 41.764439
1126.198 44.803341 41.573441
1126.505 43.261219 41.382439
1126.812 41.71909 41.191441
1127.118 40.176971 41.000439
1127.425 38.63485 40.809441
1127.7321 37.09272 40.618439
1128.0389 35.550598 40.427441
1127.165 33.57518 41.769798
1126.29 31.607161 43.113129
1125.413 29.64658 44.457329
1126.9 28.53776 42.732971
1126.022 26.5846 44.078091
1127.511 25.468361 42.35281
1126.631 23.522631 43.698841
1128.121 22.39896 41.972649
1127.24 20.460649 43.319611
1127.545 18.929661 43.12999
1129.037 17.794861 41.402409
1128.1541 15.86768 42.75074
1128.458 14.33669 42.561119
1128.7629 12.8057 42.371498
1127.877 10.89336 43.721722
1129.3719 9.7437267 41.99226
1129.677 8.2127371 41.802639
1128.788 6.3115301 43.15424
1129.092 4.7842531 42.96508
1129.396 3.2569749 42.775921
1128.504 1.370625 44.129311
1128.807 -0.15294079 43.940609
1129.11 -1.676507 43.751911
1128.2159 -3.5480111 45.10714
1125.824 -7.4390278 48.59288
1121.674 73.457733 41.114609
1121.9821 71.90818 40.922691
1122.29 70.358627 40.73077
1123.759 69.323669 39.013569
1124.068 67.770409 38.82119
1124.377 66.217148 38.628811
1123.5229 64.160446 39.9631
1123.8311 62.610901 39.771179
1124.139 61.061359 39.579262
1124.448 59.51181 39.387341
1122.424 56.98505 42.25248
1122.73 55.442928 42.061481
1123.037 53.90081 41.87048
1124.512 52.836159 40.149559
1123.651 50.816559 41.48848
1123.957 49.274441 41.297489
1124.264 47.732311 41.10648
1124.571 46.190189 40.915489
1124.877 44.64806 40.724491
1125.184 43.105942 40.533489
1125.491 41.56382 40.342491
1125.798 40.02169 40.151489
1126.104 38.479568 39.960491
1126.411 36.93745 39.769489
1126.718 35.395321 39.578491
1127.025 33.853199 39.387489
1126.153 31.881861 40.732349
1125.281 29.917931 42.078178
1126.765 28.80504 40.351269
1125.891 26.84853 41.698021
1126.197 25.313829 41.507938
1126.502 23.779131 41.31786
1127.989 22.65139 39.589119
1127.1121 20.70973 40.937698
1127.417 19.17503 40.74762
1126.843 15.71353 41.907921
1127.147 14.18254 41.7183
1127.452 12.65155 41.52869
1126.569 10.73958 42.880939
1128.061 9.5895729 41.149441
1127.176 7.6850262 42.502621
1127.48 6.1577492 42.313461
1127.7841 4.6304722 42.124298
1128.088 3.103195 41.935139
1128.391 1.575917 41.745979
1128.6949 0.048638429 41.55682
1127.806 -1.829914 42.913181
1128.109 -3.3534801 42.72448
1128.412 -4.8770471 42.53577
1122.429 69.167267 38.158482
1122.738 67.614014 37.966099
1123.047 66.060753 37.77372
1123.356 64.5075 37.581341
1121.344 61.955521 40.447319
1121.651 60.409679 40.255859
1121.958 58.86385 40.0644
1121.41 55.287651 41.212528
1122.881 54.226349 39.490021
1123.188 52.680519 39.298561
1123.496 51.134682 39.107101
1123.803 49.58884 38.915642
1124.111 48.043011 38.724178
1124.418 46.497169 38.532719
1124.726 44.95134 38.34127
1125.033 43.405499 38.149811
1125.34 41.859669 37.958351
1124.4771 39.866421 39.30254
1124.7841 38.324299 39.111542
1125.09 36.782169 38.92054
1125.397 35.240051 38.729542
1125.704 33.697929 38.53854
1124.8361 31.726959 39.885448
1125.142 30.188549 39.694908
1125.448 28.650141 39.504372
1125.754 27.111719 39.313831
1126.0601 25.573311 39.123291
1126.366 24.034901 38.932751
1126.672 22.49649 38.74221
1126.978 20.95808 38.55167
1127.2841 19.419661 38.36113
1125.8361 14.02838 40.875481
1126.141 12.4974 40.68586
1126.4449 10.96641 40.496239
1126.75 9.4354172 40.306622
1127.054 7.904428 40.117001
1126.172 6.0039678 41.472691
1126.476 4.4766908 41.28352
1126.78 2.949414 41.09436
1127.083 1.422137 40.905201
1127.387 -0.1051423 40.716042
1127.691 -1.6324199 40.526878
1127.995 -3.1596971 40.337719
1127.1071 -5.0304542 41.697041
1124.324 40.15818 36.91589
1123.463 38.169022 38.262589
1123.77 36.6269 38.07159
1124.076 35.08477 37.880589
1124.3831 33.542648 37.68959
1124.6899 32.00053 37.498589
1124.9969 30.458401 37.30759
1125.303 28.916281 37.116589
1125.61 27.374161 36.925591
1125.917 25.832029 36.7346
1125.048 23.879999 38.085838
1125.354 22.341591 37.895302
1125.66 20.803169 37.704762
1126.687 -3.313478 39.496941
1123.369 31.845249 36.649639
1123.676 30.303129 36.458641
1123.983 28.761 36.267639
1124.2889 27.21888 36.076641
1124.5959 25.67676 35.885639
1124.903 24.13463 35.694641
1161.698 121.4411 59.75177
1162.325 118.2864 59.361031
1159.552 115.1635 62.802078
1159.864 113.5954 62.607861
1159.406 126.0145 59.469509
1160.947 125.0735 57.819809
1161.262 123.4924 57.623981
1160.347 121.2823 58.883411
1160.661 119.7049 58.688042
1160.974 118.1276 58.49268
1158.209 115.0056 61.93882
1158.521 113.4375 61.74461
1158.65 129.65759 57.53688
1158.964 128.07651 57.341049
1159.278 126.4954 57.145229
1159.593 124.9143 56.949402
1159.907 123.3332 56.753571
1158.996 121.1235 58.015049
1159.3101 119.5461 57.819679
1159.623 117.9687 57.62431
1156.866 114.8477 61.075569
1155.949 112.6658 62.34045
1156.26 111.1014 62.14669
1156.981 131.0795 56.862301
1157.295 129.4984 56.66647
1157.61 127.9173 56.47065
1157.924 126.3362 56.274818
1158.239 124.7551 56.078991
1158.553 123.174 55.883171
1157.645 120.9647 57.14669
1157.959 119.3873 56.951321
1157.048 117.1891 58.216171
1155.5229 114.6898 60.212318
1154.609 112.5083 61.479229
1155.627 130.9203 55.99189
1155.941 129.3392 55.79607
1156.256 127.7581 55.600239
1156.5699 126.177 55.404419
1155.667 123.9606 56.669048
1155.98 122.3832 56.47369
1155.074 120.178 57.739658
1153.557 117.6681 59.737499
1153.869 116.1 59.543282
1152.958 113.9152 60.811779
1153.27 112.3508 60.618031
1154.2729 130.76109 55.12149
1154.587 129.17999 54.925671
1154.902 127.5989 54.729839
1155.2159 126.0178 54.534019
1154.316 123.8018 55.800701
1154.629 122.2244 55.605331
1153.7271 120.0195 56.873341
1152.214 117.5102 58.874241
1152.526 115.9421 58.680031
1151.619 113.7577 59.950569
1151.9301 112.1933 59.756821
1152.241 110.6289 59.563061
1152.9189 130.6019 54.251091
1153.233 129.0208 54.05526
1152.337 126.7977 55.323071
1152.651 125.2203 55.127701
1152.965 123.643 54.932331
1152.066 121.4348 56.201931
1150.559 118.9204 58.205212
1150.871 117.3523 58.01099
1149.968 115.1646 59.283119
1150.2791 113.6002 59.089359
1150.59 112.0358 58.895599
1150.901 110.4714 58.701851
1150.359 129.7937 54.84544
1150.672 128.21629 54.65007
1149.7791 125.9973 55.920341
1150.092 124.4237 55.72543
1150.405 122.85 55.530521
1150.718 121.2763 55.335621
1149.2159 118.7625 57.341961
1148.317 116.5714 58.615669
1148.6281 115.007 58.421909
1148.939 113.4426 58.228149
1149.25 111.8783 58.034401
1149.561 110.3139 57.840641
1150.525 128.70239 52.314461
1149.635 126.4801 53.586349
1149.949 124.9027 53.39098
1150.2629 123.3253 53.19561
1149.37 121.1179 54.469299
1147.873 118.6046 56.478699
1146.9771 116.4139 57.754459
1147.288 114.8495 57.560699
1147.599 113.2851 57.36694
1147.91 111.7207 57.17318
1148.222 110.1563 56.979431
1149.171 128.5432 51.44405
1148.2841 126.3212 52.717979
1148.598 124.7439 52.522621
1147.709 122.5331 53.79789
1148.022 120.9594 53.602982
1146.53 118.4468 55.615452
1145.637 116.2564 56.89325
